# .PCD v.5 - Point Cloud Data file format
FIELDS x y z rgba
SIZE 4 4 4 4
TYPE F F F U
WIDTH 1861
HEIGHT 1
POINTS 1861
DATA ascii
2.6734 -0.32774 1.7594 0
2.6986 -0.34321 1.8446 0
2.7216 -0.35893 1.9313 0
2.7423 -0.3749 2.0193 0
2.7765 -0.39331 2.1208 0
2.8001 -0.41091 2.2178 0
2.8287 -0.42992 2.3226 0
2.8846 -0.45393 2.455 0
2.9069 -0.47363 2.5635 0
2.919 -0.49237 2.6669 0
6.7038 -1.1651 6.3749 0
3.0546 -0.552 2.9956 0
3.0907 -0.57816 3.1398 0
3.1293 -0.60602 3.2934 0
3.1835 -0.63827 3.4712 0
3.2388 -0.67238 3.6592 0
3.4422 -0.73991 4.0314 0
3.3321 -0.74218 4.044 0
3.3025 -0.76231 4.155 0
3.2458 -0.77676 4.2347 0
3.2226 -0.79977 4.3615 0
3.0814 -0.79357 4.3274 0
2.9814 -0.79712 4.347 0
2.8872 -0.80178 4.3727 0
2.7929 -0.80611 4.3966 0
2.6987 -0.81008 4.4185 0
2.6095 -0.81527 4.4471 0
2.5154 -0.81858 4.4654 0
2.426 -0.82313 4.4905 0
2.3275 -0.82419 4.4964 0
2.2339 -0.8265 4.5091 0
2.1489 -0.83171 4.5379 0
2.0636 -0.83664 4.5651 0
1.9742 -0.83965 4.5817 0
1.8884 -0.84401 4.6058 0
1.7918 -0.84309 4.6007 0
1.6313 -0.80993 4.418 0
1.5167 -0.79631 4.3429 0
1.4237 -0.79242 4.3215 0
1.3725 -0.8121 4.43 0
1.3562 -0.85574 4.6706 0
1.2727 -0.85983 4.6931 0
1.1889 -0.86366 4.7143 0
1.1047 -0.86723 4.734 0
1.0222 -0.87228 4.7619 0
0.93714 -0.87533 4.7787 0
0.85353 -0.87987 4.8038 0
0.76932 -0.88416 4.8274 0
0.68452 -0.88819 4.8496 0
0.59918 -0.89195 4.8704 0
0.51433 -0.89723 4.8996 0
0.42777 -0.90047 4.9174 0
0.34277 -0.90879 4.9633 0
0.25527 -0.91328 4.9881 0
0.16699 -0.9175 5.0114 0
0.077959 -0.92145 5.0332 0
-0.011813 -0.9269 5.0633 0
-0.10322 -0.93743 5.1213 0
-0.19557 -0.94231 5.1483 0
-0.28892 -0.9469 5.1736 0
-0.3825 -0.94942 5.1875 0
-0.47934 -0.95697 5.2291 0
-0.5767 -0.96242 5.2592 0
-0.64798 -0.9286 5.0728 0
-0.70577 -0.8858 4.8369 0
-0.79028 -0.88171 4.8143 0
-0.88652 -0.88965 4.8581 0
-0.98456 -0.89726 4.9001 0
-1.0801 -0.90103 4.9209 0
-0.69302 -0.53428 2.8989 0
-0.72035 -0.51473 2.7911 0
-0.77538 -0.51586 2.7974 0
-0.83641 -0.52022 2.8214 0
-0.89558 -0.52265 2.8348 0
-0.95859 -0.52657 2.8564 0
-1.0161 -0.52687 2.8581 0
-1.0911 -0.53536 2.9049 0
-1.1609 -0.5402 2.9316 0
-1.2546 -0.55468 3.0115 0
-1.3593 -0.57202 3.1072 0
-2.4774 -0.99115 5.4181 0
-2.5226 -0.96389 5.2679 0
-2.6645 -0.97351 5.3209 0
-2.7999 -0.97935 5.3532 0
-2.3763 -0.79737 4.3498 0
-2.4194 -0.77893 4.2481 0
-2.4497 -0.75738 4.1293 0
-2.4868 -0.73894 4.0277 0
-2.6753 -0.76433 4.1677 0
-2.8038 -0.77082 4.2035 0
-2.9177 -0.77231 4.2118 0
-4.4941 -1.144 6.2614 0
-2.618 -0.64413 3.505 0
-2.638 -0.62591 3.4046 0
-2.6613 -0.60918 3.3123 0
-2.6885 -0.59387 3.228 0
-2.7071 -0.57722 3.1362 0
-2.7299 -0.56198 3.0521 0
-2.7572 -0.5481 2.9756 0
-2.769 -0.53161 2.8847 0
-2.7992 -0.51906 2.8156 0
-2.7712 -0.49642 2.6907 0
-2.8117 -0.48647 2.6359 0
-2.8365 -0.474 2.5671 0
-2.8522 -0.46033 2.4918 0
-2.8662 -0.4467 2.4166 0
-2.8706 -0.43199 2.3355 0
-2.8887 -0.41962 2.2673 0
-2.9052 -0.40727 2.1993 0
-2.9202 -0.39495 2.1313 0
-2.9337 -0.38266 2.0636 0
-2.9538 -0.37142 2.0016 0
-2.9727 -0.36017 1.9396 0
-2.9903 -0.34892 1.8776 0
-3.0065 -0.33767 1.8156 0
-3.0215 -0.32642 1.7536 0
-3.0353 -0.31519 1.6916 0
-3.0565 -0.30482 1.6345 0
-3.0589 -0.29275 1.568 0
-3.0777 -0.28238 1.5108 0
-3.0955 -0.27197 1.4534 0
-3.1122 -0.26154 1.3959 0
-3.1277 -0.25108 1.3383 0
-3.1422 -0.24061 1.2805 0
-3.1556 -0.23012 1.2227 0
-3.1772 -0.22026 1.1683 0
-3.1978 -0.21033 1.1136 0
-3.2081 -0.19976 1.0553 0
-3.2267 -0.18974 1.0001 0
-3.2444 -0.17966 0.94453 0
-3.2514 -0.16904 0.88598 0
-3.2574 -0.15843 0.82749 0
-3.2817 -0.14869 0.77379 0
-3.2954 -0.13844 0.71732 0
-1.7422 -0.069476 0.33668 0
-1.7091 -0.062695 0.29929 0
-1.6062 -0.054002 0.25134 0
-1.5713 -0.047893 0.21765 0
-0.88194 -0.025909 0.096269 0
-0.87401 -0.022947 0.079934 0
-0.87571 -0.020223 0.064916 0
-0.88711 -0.017645 0.050706 0
-0.8883 -0.014881 0.035467 0
-0.88921 -0.012113 0.02021 0
-0.90985 -0.009459 0.0055836 0
-0.90023 -0.0065984 -0.010189 0
-0.92033 -0.0037863 -0.025687 0
6.3981 -0.016751 0.039425 0
9.6448 -0.053544 0.23759 0
8.0103 -0.07044 0.33088 0
7.6634 -0.091781 0.44745 0
7.7735 -0.11765 0.58838 0
11.076 -0.20103 1.0404 0
11.115 -0.23713 1.2372 0
5.1431 -0.12842 0.649 0
5.2292 -0.14731 0.75188 0
5.2541 -0.16497 0.84811 0
5.2869 -0.18316 0.94722 0
5.3081 -0.20124 1.0458 0
2.1456 -0.090913 0.44676 0
2.098 -0.095961 0.4743 0
2.0018 -0.098457 0.48798 0
2.0309 -0.1067 0.53286 0
2.0494 -0.11463 0.57608 0
2.0575 -0.12216 0.61714 0
2.0743 -0.13036 0.66179 0
2.09 -0.13869 0.70721 0
2.1048 -0.14716 0.75337 0
2.1186 -0.15577 0.80027 0
2.1313 -0.1645 0.84787 0
2.1522 -0.17409 0.90009 0
2.5628 -0.21618 1.1292 0
5.7078 -0.49817 2.6639 0
2.6098 -0.24029 1.2606 0
2.5334 -0.24345 1.2779 0
2.5801 -0.25831 1.3588 0
2.5987 -0.27086 1.4272 0
2.6156 -0.2836 1.4967 0
2.6393 -0.29748 1.5723 0
2.6527 -0.31061 1.6438 0
2.6643 -0.32391 1.7163 0
2.6824 -0.33841 1.7953 0
2.7066 -0.35417 1.8812 0
2.7366 -0.37125 1.9743 0
2.7642 -0.38863 2.069 0
2.7891 -0.40629 2.1652 0
2.8192 -0.42537 2.2692 0
2.8616 -0.4471 2.3876 0
2.9007 -0.46923 2.5082 0
2.9215 -0.4893 2.6176 0
2.9177 -0.50589 2.708 0
3.0682 -0.5505 2.951 0
3.0709 -0.5704 3.0595 0
3.1119 -0.59834 3.2118 0
3.1552 -0.62805 3.3736 0
3.2069 -0.66091 3.5527 0
3.2661 -0.69702 3.7495 0
3.4208 -0.75602 4.071 0
3.2855 -0.75253 4.052 0
3.2856 -0.77997 4.2016 0
3.3526 -0.82507 4.4473 0
3.1336 -0.80018 4.3118 0
3.0336 -0.80396 4.3325 0
2.9393 -0.80887 4.3593 0
2.845 -0.81343 4.3843 0
2.7455 -0.8161 4.3989 0
2.6564 -0.8215 4.4284 0
2.5623 -0.82502 4.4476 0
2.473 -0.82978 4.4737 0
2.3882 -0.83584 4.5067 0
1.1329 -0.4164 2.2216 0
2.1959 -0.83895 4.5238 0
2.1066 -0.84244 4.5429 0
2.0213 -0.84729 4.5694 0
1.9357 -0.85185 4.5943 0
1.8498 -0.85613 4.6177 0
1.7113 -0.83475 4.5013 0
1.6174 -0.8332 4.4929 0
1.4707 -0.8022 4.3241 0
1.3933 -0.8067 4.3487 0
1.3861 -0.85425 4.6078 0
1.317 -0.86718 4.6783 0
1.2334 -0.87119 4.7003 0
1.1493 -0.87494 4.7207 0
1.0671 -0.88018 4.7494 0
0.98225 -0.8834 4.767 0
0.89888 -0.88813 4.7928 0
0.8149 -0.8926 4.8173 0
0.73033 -0.89681 4.8403 0
0.64519 -0.90076 4.8619 0
0.5595 -0.90444 4.882 0
0.47425 -0.90965 4.9105 0
0.38969 -0.9182 4.9571 0
0.30183 -0.92108 4.9729 0
0.21396 -0.92549 4.997 0
0.12532 -0.92963 5.0196 0
0.03594 -0.93348 5.0407 0
-0.054654 -0.94608 5.1094 0
-0.14657 -0.95117 5.1372 0
-0.23904 -0.95416 5.1536 0
-0.33276 -0.95866 5.1782 0
-0.42742 -0.96285 5.2011 0
-0.52397 -0.96854 5.2321 0
-0.61716 -0.96673 5.2224 0
-0.67718 -0.91992 4.9673 0
-0.74177 -0.88909 4.7993 0
-0.83724 -0.89729 4.844 0
-0.93452 -0.90515 4.887 0
-1.0296 -0.90914 4.9088 0
-1.1256 -0.91279 4.9288 0
-0.69669 -0.52326 2.8053 0
-0.7468 -0.52099 2.793 0
-0.80474 -0.52377 2.8082 0
-0.8663 -0.52807 2.8317 0
-0.92591 -0.53042 2.8445 0
-0.98623 -0.53255 2.8562 0
-1.0707 -0.54636 2.9315 0
-1.123 -0.54291 2.9127 0
-1.2117 -0.55606 2.9845 0
-1.311 -0.57215 3.0722 0
-2.51 -1.0408 5.6274 0
-2.4892 -0.98515 5.3241 0
-2.5795 -0.97552 5.2717 0
-2.7312 -0.98822 5.341 0
-2.3537 -0.81637 4.4041 0
-2.3984 -0.79774 4.3026 0
-2.4304 -0.77594 4.1838 0
-2.4589 -0.75419 4.0653 0
-2.5887 -0.76323 4.1146 0
-2.7426 -0.77775 4.1939 0
-2.8723 -0.78402 4.2282 0
-4.372 -1.1476 6.2109 0
-4.5983 -1.163 6.2949 0
-2.6358 -0.64429 3.4664 0
-2.6485 -0.62445 3.3583 0
-2.6707 -0.60756 3.2662 0
-2.6968 -0.5921 3.182 0
-2.7143 -0.5753 3.0904 0
-2.736 -0.55991 3.0066 0
-2.7758 -0.54855 2.9447 0
-2.7246 -0.52013 2.7897 0
-2.7671 -0.51019 2.7356 0
-2.8157 -0.50139 2.6877 0
-2.8271 -0.48625 2.6052 0
-2.8438 -0.47241 2.5297 0
-2.8587 -0.45861 2.4545 0
-2.8794 -0.44603 2.386 0
-2.8754 -0.43002 2.2987 0
-2.8926 -0.41754 2.2307 0
-2.9163 -0.40618 2.1688 0
-2.9226 -0.39265 2.0951 0
-2.9435 -0.3813 2.0332 0
-2.9631 -0.36993 1.9713 0
-2.9813 -0.35856 1.9093 0
-2.9983 -0.34718 1.8473 0
-3.014 -0.33581 1.7853 0
-3.0284 -0.32444 1.7234 0
-3.0415 -0.31308 1.6615 0
-3.0534 -0.30174 1.5997 0
-3.0729 -0.29125 1.5425 0
-3.0913 -0.28073 1.4852 0
-3.1085 -0.27018 1.4277 0
-3.1247 -0.25961 1.3701 0
-3.149 -0.24973 1.3162 0
-3.1631 -0.23909 1.2583 0
-3.1667 -0.22778 1.1966 0
-3.1879 -0.21777 1.1421 0
-3.2081 -0.2077 1.0872 0
-3.2179 -0.197 1.0289 0
-3.2265 -0.1863 0.97059 0
-3.2437 -0.17611 0.91508 0
-3.2599 -0.16587 0.85928 0
-3.2751 -0.15559 0.80321 0
-3.2795 -0.14483 0.74461 0
-1.7692 -0.074145 0.35823 0
-1.7169 -0.066431 0.31614 0
-1.7227 -0.061018 0.28665 0
-1.7378 -0.055882 0.25866 0
-0.90172 -0.028059 0.1064 0
-0.87416 -0.024525 0.087119 0
-0.87601 -0.021773 0.072123 0
-0.88755 -0.019185 0.058026 0
-0.88888 -0.016392 0.042804 0
-0.89993 -0.013702 0.028149 0
-0.90073 -0.010871 0.012719 0
-0.91125 -0.008081 -0.0024779 0
-0.9215 -0.0052271 -0.018025 0
6.3283 -0.0065927 -0.016408 0
7.0171 -0.029003 0.105 0
9.582 -0.068348 0.31707 0
7.837 -0.081431 0.38965 0
7.619 -0.10341 0.50945 0
11.035 -0.18295 0.93959 0
11.096 -0.21928 1.1372 0
5.1488 -0.12045 0.60411 0
5.2259 -0.13897 0.70485 0
5.2517 -0.15658 0.80068 0
5.2658 -0.17408 0.89589 0
5.2879 -0.19206 0.99372 0
5.3179 -0.21061 1.0947 0
2.112 -0.093172 0.45811 0
2.0643 -0.098061 0.48475 0
2.026 -0.10315 0.51246 0
2.045 -0.11103 0.55535 0
2.0535 -0.11853 0.59617 0
2.0707 -0.12668 0.64051 0
2.0775 -0.13438 0.68241 0
2.0928 -0.14279 0.72812 0
2.1071 -0.15132 0.77457 0
2.1297 -0.16067 0.82543 0
2.1326 -0.16879 0.86959 0
2.1986 -0.18214 0.94221 0
5.6682 -0.48447 2.5847 0
2.6749 -0.24127 1.2636 0
2.5626 -0.24143 1.2646 0
2.5394 -0.24948 1.3084 0
2.5852 -0.26449 1.39 0
2.603 -0.27714 1.4589 0
2.6277 -0.29092 1.5338 0
2.642 -0.30397 1.6048 0
2.6629 -0.31818 1.6821 0
2.6736 -0.3316 1.7552 0
2.6989 -0.34727 1.8404 0
2.722 -0.36319 1.927 0
2.7428 -0.37935 2.015 0
2.777 -0.39799 2.1164 0
2.8007 -0.41581 2.2133 0
2.8294 -0.43506 2.3181 0
2.8854 -0.45937 2.4503 0
2.9079 -0.47932 2.5588 0
2.92 -0.4983 2.6621 0
6.7009 -1.1781 6.3584 0
3.0489 -0.55739 2.9836 0
3.0921 -0.58516 3.1347 0
3.1309 -0.61337 3.2881 0
3.1852 -0.64602 3.4658 0
3.2407 -0.68057 3.6538 0
3.4445 -0.74893 4.0256 0
3.3344 -0.75124 4.0383 0
3.3048 -0.77162 4.1492 0
3.2483 -0.78626 4.2289 0
3.231 -0.81103 4.3637 0
3.0839 -0.8033 4.3218 0
2.9896 -0.8084 4.3496 0
2.8897 -0.81163 4.3673 0
2.7955 -0.81601 4.3912 0
2.7013 -0.82004 4.4132 0
2.6122 -0.8253 4.4419 0
2.518 -0.82866 4.4602 0
2.4287 -0.83327 4.4854 0
1.1937 -0.42972 2.2903 0
2.2365 -0.83669 4.5042 0
2.1516 -0.84198 4.533 0
2.0664 -0.84698 4.5603 0
1.9808 -0.85169 4.586 0
1.8912 -0.85445 4.6011 0
1.7981 -0.85522 4.6053 0
1.6373 -0.82166 4.4228 0
1.5387 -0.81643 4.3945 0
1.4323 -0.80568 4.336 0
1.3751 -0.82217 4.4258 0
1.359 -0.86636 4.6663 0
1.2756 -0.87051 4.689 0
1.1941 -0.87615 4.7197 0
1.1075 -0.87802 4.73 0
1.0251 -0.88314 4.7579 0
0.94005 -0.88623 4.7748 0
0.85646 -0.89083 4.7999 0
0.77227 -0.89518 4.8236 0
0.68888 -0.90105 4.8557 0
0.60338 -0.90488 4.8765 0
0.51734 -0.90843 4.896 0
0.43338 -0.91712 4.9433 0
0.34584 -0.92015 4.9598 0
0.25836 -0.9247 4.9847 0
0.1701 -0.92898 5.0081 0
0.081096 -0.93299 5.0299 0
-0.0086494 -0.93851 5.0601 0
-0.1 -0.94918 5.1182 0
-0.19233 -0.95413 5.1452 0
-0.28565 -0.95879 5.1706 0
-0.37993 -0.96314 5.1944 0
-0.47602 -0.96899 5.2263 0
-0.57336 -0.97452 5.2565 0
-0.64481 -0.94027 5.0702 0
-0.7028 -0.89694 4.8344 0
-0.78734 -0.89279 4.8119 0
-0.88354 -0.90084 4.8558 0
-0.98154 -0.90855 4.8978 0
-1.0771 -0.91238 4.9187 0
-0.69178 -0.54097 2.8972 0
-0.72163 -0.52293 2.7991 0
-0.77683 -0.52406 2.8053 0
-0.83524 -0.52674 2.8199 0
-0.89734 -0.53093 2.8428 0
-0.97601 -0.54348 2.9111 0
-1.041 -0.54715 2.9311 0
-1.0899 -0.54208 2.9036 0
-1.1705 -0.55205 2.9579 0
-1.257 -0.56334 3.0194 0
-2.4593 -1.0463 5.6486 0
-2.4739 -1.0037 5.4169 0
-2.5235 -0.97777 5.2757 0
-2.6611 -0.98588 5.3199 0
-2.7965 -0.99181 5.3523 0
-2.3738 -0.80749 4.3489 0
-2.417 -0.78882 4.2474 0
-2.4473 -0.767 4.1287 0
-2.4794 -0.74679 4.0187 0
-2.6782 -0.77558 4.1755 0
-2.8069 -0.78215 4.2114 0
-2.9209 -0.78365 4.2196 0
-4.4841 -1.1572 6.2536 0
-2.6634 -0.664 3.5683 0
-2.6363 -0.63388 3.4044 0
-2.6597 -0.61694 3.3122 0
-2.6807 -0.60004 3.2203 0
-2.7057 -0.58458 3.1361 0
-2.7285 -0.56915 3.0522 0
-2.7559 -0.55509 2.9757 0
-2.7609 -0.53708 2.8777 0
-2.805 -0.52699 2.8228 0
-2.7702 -0.50276 2.6909 0
-2.8179 -0.49394 2.643 0
-2.8429 -0.48129 2.5741 0
-2.8513 -0.46621 2.4921 0
-2.8653 -0.45242 2.4171 0
-2.8699 -0.43752 2.336 0
-2.888 -0.425 2.2678 0
-2.9046 -0.41249 2.1998 0
-2.9276 -0.4011 2.1378 0
-2.9413 -0.38863 2.07 0
-2.9534 -0.37619 2.0023 0
-2.9723 -0.3648 1.9404 0
-2.9899 -0.35341 1.8784 0
-3.0063 -0.34202 1.8164 0
-3.0213 -0.33063 1.7544 0
-3.0351 -0.31925 1.6925 0
-3.0564 -0.30876 1.6354 0
-3.0588 -0.29654 1.5689 0
-3.0777 -0.28603 1.5118 0
-3.0955 -0.27549 1.4544 0
-3.1122 -0.26493 1.3969 0
-3.1279 -0.25434 1.3394 0
-3.1516 -0.24444 1.2855 0
-3.1651 -0.23379 1.2275 0
-3.1775 -0.22313 1.1695 0
-3.1982 -0.21308 1.1149 0
-3.2085 -0.20238 1.0566 0
-3.2272 -0.19223 1.0014 0
-3.2449 -0.18202 0.94589 0
-3.252 -0.17127 0.88738 0
-3.2677 -0.16099 0.83145 0
-3.2727 -0.15023 0.77289 0
-3.2961 -0.14029 0.71883 0
-1.7433 -0.07035 0.33698 0
-1.7102 -0.063481 0.29958 0
-1.6467 -0.055912 0.25834 0
-1.5626 -0.048204 0.21632 0
-0.87329 -0.02593 0.094561 0
-0.87527 -0.023177 0.079582 0
-0.87699 -0.020419 0.064571 0
-0.88841 -0.017809 0.050378 0
-0.88961 -0.01501 0.035146 0
-0.89053 -0.012207 0.019896 0
-0.90118 -0.0094616 0.0049634 0
-0.92157 -0.006679 -0.010163 0
-0.91169 -0.003781 -0.025942 0
6.3971 -0.016509 0.034201 0
9.6439 -0.053501 0.23009 0
7.9995 -0.070558 0.32402 0
7.6627 -0.092207 0.44123 0
7.7629 -0.11818 0.58126 0
11.075 -0.20235 1.0317 0
11.114 -0.2388 1.2283 0
5.1425 -0.12933 0.64443 0
5.2188 -0.14812 0.74576 0
5.2536 -0.16622 0.8434 0
5.2964 -0.18492 0.94426 0
5.2979 -0.20247 1.039 0
2.1546 -0.092 0.44644 0
2.0973 -0.096701 0.47187 0
2.0011 -0.099226 0.48561 0
2.0302 -0.10754 0.53045 0
2.0392 -0.11503 0.57085 0
2.0569 -0.12316 0.61469 0
2.0737 -0.13143 0.65931 0
2.0895 -0.13985 0.70471 0
2.1043 -0.1484 0.75085 0
2.1181 -0.15709 0.79771 0
2.1309 -0.16591 0.84529 0
2.1518 -0.17558 0.89748 0
2.5626 -0.21807 1.1263 0
5.7086 -0.50264 2.6582 0
2.6096 -0.2424 1.2575 0
2.5332 -0.2456 1.2749 0
2.5712 -0.25973 1.3511 0
2.5986 -0.27328 1.4241 0
2.6155 -0.28614 1.4935 0
2.6393 -0.30015 1.5691 0
2.6528 -0.31341 1.6406 0
2.6645 -0.32684 1.7131 0
2.6826 -0.34148 1.7921 0
2.7069 -0.35738 1.8779 0
2.737 -0.37463 1.9709 0
2.7566 -0.39106 2.0596 0
2.7896 -0.41001 2.1617 0
2.8197 -0.42927 2.2657 0
2.8622 -0.45122 2.384 0
2.9013 -0.47356 2.5046 0
2.9223 -0.49382 2.6139 0
2.9185 -0.51058 2.7043 0
3.062 -0.55433 2.9402 0
3.0719 -0.5757 3.0555 0
3.1131 -0.60391 3.2077 0
3.1565 -0.6339 3.3695 0
3.2083 -0.66708 3.5485 0
3.2611 -0.70216 3.7377 0
3.429 -0.76452 4.074 0
3.2873 -0.75959 4.0476 0
3.2935 -0.78874 4.2049 0
3.3427 -0.82989 4.4269 0
3.1356 -0.80771 4.3074 0
3.0412 -0.81304 4.3363 0
2.9413 -0.81649 4.3551 0
2.847 -0.8211 4.38 0
2.7527 -0.82536 4.4031 0
2.6585 -0.82926 4.4243 0
2.5643 -0.83282 4.4436 0
2.4798 -0.83924 4.4783 0
2.3903 -0.84375 4.5028 0
1.1334 -0.4203 2.2192 0
2.2023 -0.84855 4.5289 0
2.1129 -0.85209 4.5481 0
2.0234 -0.85533 4.5657 0
1.9378 -0.85994 4.5907 0
1.8519 -0.86427 4.6141 0
1.6854 -0.82903 4.4241 0
1.6162 -0.83941 4.4802 0
1.4726 -0.80983 4.3208 0
1.3983 -0.81612 4.3548 0
1.3939 -0.86589 4.6234 0
1.3192 -0.87545 4.6751 0
1.2356 -0.8795 4.697 0
1.1539 -0.88506 4.7271 0
1.0694 -0.88859 4.7462 0
0.98649 -0.89363 4.7736 0
0.90115 -0.89662 4.7898 0
0.81719 -0.90114 4.8143 0
0.73263 -0.9054 4.8373 0
0.64751 -0.90939 4.859 0
0.56184 -0.91311 4.8792 0
0.4766 -0.91838 4.9077 0
0.3913 -0.92519 4.9446 0
0.30483 -0.93174 4.98 0
0.2168 -0.9362 5.0042 0
0.128 -0.94038 5.0268 0
0.038382 -0.94246 5.0381 0
-0.052164 -0.95518 5.1069 0
-0.14379 -0.9585 5.1249 0
-0.23696 -0.96517 5.161 0
-0.33022 -0.9679 5.1758 0
-0.42566 -0.97396 5.2086 0
-0.52139 -0.97788 5.2299 0
-0.61345 -0.97426 5.2105 0
-0.67478 -0.9288 4.9652 0
-0.73949 -0.89768 4.7974 0
-0.83493 -0.90596 4.8422 0
-0.93218 -0.9139 4.8852 0
-1.0272 -0.91793 4.907 0
-1.1233 -0.92163 4.9271 0
-0.69579 -0.52829 2.804 0
-0.74842 -0.52776 2.8012 0
-0.80652 -0.53056 2.8164 0
-0.87107 -0.53665 2.8493 0
-0.95211 -0.55116 2.9277 0
-1.0139 -0.55323 2.939 0
-1.053 -0.54305 2.8841 0
-1.1291 -0.55156 2.9301 0
-1.2217 -0.56652 3.0109 0
-2.3949 -1.0537 5.6413 0
-2.5071 -1.0509 5.6264 0
-2.4908 -0.99641 5.3322 0
-2.5812 -0.98668 5.2798 0
-2.7286 -0.99786 5.3403 0
-2.3563 -0.82594 4.4121 0
-2.3965 -0.80552 4.302 0
-2.4335 -0.7851 4.1918 0
-2.4572 -0.76155 4.0648 0
-2.5974 -0.77379 4.131 0
-2.7407 -0.78536 4.1936 0
-2.8649 -0.79017 4.2197 0
-4.3858 -1.1634 6.2352 0
-4.5834 -1.1714 6.2791 0
-2.6284 -0.64913 3.4583 0
-2.6472 -0.63056 3.3581 0
-2.6695 -0.6135 3.2661 0
-2.6957 -0.5979 3.1819 0
-2.7132 -0.58093 3.0904 0
-2.7349 -0.5654 3.0066 0
-2.768 -0.55259 2.9375 0
-2.7238 -0.52523 2.7898 0
-2.7663 -0.51519 2.7357 0
-2.8149 -0.50631 2.6879 0
-2.8191 -0.48977 2.5986 0
-2.8431 -0.47705 2.53 0
-2.858 -0.46311 2.4548 0
-2.8788 -0.45041 2.3863 0
-2.8748 -0.43425 2.2991 0
-2.8921 -0.42165 2.2311 0
-2.9159 -0.41018 2.1692 0
-2.9303 -0.3976 2.1014 0
-2.9431 -0.38505 2.0337 0
-2.9627 -0.37358 1.9718 0
-2.981 -0.3621 1.9098 0
-2.9981 -0.35061 1.8479 0
-3.0138 -0.33913 1.7859 0
-3.0282 -0.32765 1.724 0
-3.0414 -0.31619 1.6622 0
-3.0621 -0.3056 1.6051 0
-3.0728 -0.29414 1.5433 0
-3.0823 -0.28271 1.4816 0
-3.1086 -0.27287 1.4285 0
-3.1248 -0.26219 1.3709 0
-3.14 -0.2515 1.3132 0
-3.154 -0.24078 1.2554 0
-3.1669 -0.23006 1.1975 0
-3.1882 -0.21995 1.143 0
-3.199 -0.20918 1.0849 0
-3.2182 -0.19898 1.0299 0
-3.2364 -0.18872 0.97457 0
-3.2441 -0.17789 0.91614 0
-3.2603 -0.16756 0.86038 0
-3.2756 -0.15717 0.80434 0
-3.2898 -0.14673 0.74805 0
-1.7602 -0.074472 0.35635 0
-1.7177 -0.067071 0.31637 0
-1.7235 -0.061606 0.28688 0
-1.7781 -0.05761 0.26538 0
-0.8928 -0.02802 0.10469 0
-0.87514 -0.024716 0.086842 0
-0.877 -0.021938 0.071852 0
-0.8786 -0.019154 0.056832 0
-0.87992 -0.016366 0.041787 0
-0.90095 -0.013789 0.027909 0
-0.90176 -0.010931 0.012485 0
-0.91229 -0.0081148 -0.0027003 0
-0.92256 -0.0052337 -0.018235 0
6.3396 -0.0070449 0.036116 0
7.0375 -0.029927 0.16273 0
9.5908 -0.070123 0.3931 0
7.8553 -0.083364 0.45353 0
7.6164 -0.10546 0.5703 0
11.039 -0.18676 1.0258 0
11.098 -0.22369 1.2238 0
5.1556 -0.12268 0.64767 0
5.232 -0.14152 0.74892 0
5.2472 -0.15913 0.84325 0
5.2704 -0.17721 0.94013 0
5.3016 -0.19585 1.04 0
5.3114 -0.21397 1.137 0
2.1297 -0.095091 0.48193 0
2.0721 -0.099638 0.50591 0
2.0239 -0.10432 0.5307 0
2.0427 -0.11231 0.57354 0
2.0605 -0.12045 0.61719 0
2.0678 -0.12816 0.65851 0
2.0838 -0.13657 0.70355 0
2.0988 -0.14511 0.74934 0
2.1221 -0.15445 0.79947 0
2.1349 -0.16329 0.84686 0
2.1468 -0.17227 0.89494 0
2.203 -0.18513 0.96407 0
5.6696 -0.49357 2.6351 0
5.6932 -0.51817 2.7669 0
2.5647 -0.24543 1.2889 0
2.5411 -0.25361 1.3325 0
2.5951 -0.26977 1.4193 0
2.6036 -0.28174 1.4834 0
2.6278 -0.29574 1.5584 0
2.6415 -0.30901 1.6295 0
2.6619 -0.32346 1.707 0
2.6721 -0.33711 1.78 0
2.6968 -0.35303 1.8654 0
2.7192 -0.36922 1.9521 0
2.7314 -0.38455 2.0342 0
2.765 -0.40347 2.1356 0
2.7959 -0.42272 2.2388 0
2.8238 -0.4423 2.3437 0
2.8788 -0.46702 2.4763 0
2.9005 -0.48729 2.5849 0
2.9119 -0.50659 2.6882 0
6.6728 -1.1993 6.4168 0
3.0384 -0.56668 3.0105 0
3.0736 -0.59359 3.1546 0
3.1115 -0.62224 3.3082 0
3.1712 -0.65679 3.4934 0
3.2253 -0.69191 3.6816 0
3.42 -0.76002 4.0472 0
3.3162 -0.76376 4.0666 0
3.2858 -0.78448 4.1773 0
3.2287 -0.79936 4.2565 0
3.222 -0.82751 4.4071 0
3.0693 -0.81817 4.3562 0
2.9691 -0.82184 4.3752 0
2.8745 -0.82665 4.4004 0
2.7747 -0.82956 4.4153 0
2.6804 -0.83365 4.4367 0
2.591 -0.83898 4.4647 0
2.5015 -0.844 4.491 0
2.4118 -0.8487 4.5156 0
1.1615 -0.42688 2.2513 0
2.215 -0.85053 4.5242 0
2.134 -0.85756 4.5613 0
2.0444 -0.86097 4.579 0
1.9586 -0.86576 4.6041 0
1.8726 -0.87026 4.6277 0
1.7758 -0.86932 4.6221 0
1.613 -0.83347 4.4293 0
1.537 -0.8403 4.4654 0
1.412 -0.81893 4.3503 0
1.357 -0.83745 4.4491 0
1.3363 -0.88061 4.6799 0
1.2527 -0.88482 4.7019 0
1.1687 -0.88876 4.7225 0
1.0865 -0.89423 4.7512 0
1.0037 -0.89943 4.7786 0
0.91836 -0.90258 4.7949 0
0.83442 -0.90725 4.8194 0
0.74989 -0.91167 4.8425 0
0.66478 -0.91582 4.8642 0
0.57913 -0.9197 4.8845 0
0.49296 -0.92331 4.9032 0
0.40866 -0.93213 4.95 0
0.32161 -0.93703 4.9756 0
0.23334 -0.93982 4.99 0
0.14518 -0.946 5.0226 0
0.055835 -0.95006 5.0438 0
-0.034217 -0.95384 5.0634 0
-0.12599 -0.96467 5.1208 0
-0.21895 -0.97153 5.157 0
-0.31263 -0.97625 5.1817 0
-0.40647 -0.97883 5.1949 0
-0.50184 -0.98294 5.2163 0
-0.59922 -0.98856 5.2458 0
-0.67174 -0.95739 5.0786 0
-0.72818 -0.91333 4.8425 0
-0.81108 -0.90729 4.8097 0
-0.9076 -0.91546 4.8529 0
-1.0059 -0.92329 4.8942 0
-1.1016 -0.92717 4.9144 0
-0.70154 -0.54964 2.8969 0
-0.73068 -0.53129 2.7986 0
-0.78859 -0.53421 2.8138 0
-0.8643 -0.54751 2.8845 0
-0.93073 -0.55346 2.9159 0
-0.97001 -0.54343 2.8621 0
-1.0343 -0.54721 2.8819 0
-1.1032 -0.55246 2.9095 0
-1.1916 -0.56599 2.9814 0
-2.3654 -1.0607 5.6213 0
-2.4891 -1.0632 5.6337 0
-2.5103 -1.0233 5.42 0
-2.5506 -0.99351 5.2606 0
-2.6885 -1.0017 5.3038 0
-2.8241 -1.0078 5.3352 0
-2.4084 -0.82528 4.3614 0
-2.4366 -0.80144 4.2337 0
-2.4711 -0.78085 4.1233 0
-2.5025 -0.76027 4.013 0
-2.7026 -0.78951 4.1683 0
-2.8262 -0.79462 4.1948 0
-2.9402 -0.79613 4.2022 0
-4.5183 -1.1757 6.2237 0
-4.7355 -1.1878 6.2872 0
-2.6558 -0.64538 3.3974 0
-2.6787 -0.62813 3.305 0
-2.6928 -0.6095 3.2052 0
-2.7171 -0.59379 3.121 0
-2.7393 -0.57809 3.0369 0
-2.7594 -0.56244 2.953 0
-2.7636 -0.54415 2.8551 0
-2.8142 -0.53523 2.8071 0
-2.7926 -0.51319 2.6893 0
-2.833 -0.50291 2.6341 0
-2.8428 -0.48752 2.5517 0
-2.8656 -0.47467 2.4828 0
-2.8715 -0.45942 2.4012 0
-2.8755 -0.44427 2.3201 0
-2.8931 -0.43154 2.2519 0
-2.9171 -0.41995 2.1897 0
-2.9318 -0.40724 2.1216 0
-2.9368 -0.39349 2.048 0
-2.9565 -0.38192 1.986 0
-2.975 -0.37034 1.924 0
-2.9922 -0.35876 1.8619 0
-3.0081 -0.34718 1.7998 0
-3.0227 -0.3356 1.7378 0
-3.036 -0.32403 1.6758 0
-3.0481 -0.31247 1.6139 0
-3.0677 -0.30179 1.5567 0
-3.0773 -0.29025 1.4948 0
-3.0947 -0.27954 1.4374 0
-3.111 -0.2688 1.3799 0
-3.1262 -0.25803 1.3222 0
-3.1495 -0.24796 1.2682 0
-3.1626 -0.23714 1.2102 0
-3.1746 -0.2263 1.1521 0
-3.1949 -0.21608 1.0973 0
-3.2047 -0.2052 1.039 0
-3.223 -0.19488 0.98371 0
-3.2403 -0.1845 0.9281 0
-3.2566 -0.17407 0.87219 0
-3.2526 -0.16265 0.81109 0
-3.2668 -0.15218 0.755 0
-3.2899 -0.14207 0.70079 0
-1.7343 -0.071118 0.33049 0
-1.7009 -0.064138 0.29335 0
-1.6372 -0.056449 0.25259 0
-1.5725 -0.049187 0.21412 0
-0.86259 -0.026041 0.094547 0
-0.8744 -0.023462 0.080676 0
-0.86607 -0.020438 0.064548 0
-0.87738 -0.017784 0.05028 0
-0.87847 -0.014938 0.035049 0
-0.88927 -0.012181 0.02023 0
-0.88983 -0.0092972 0.0047995 0
-0.8901 -0.006412 -0.010638 0
-0.90011 -0.0035214 -0.026164 0
6.4066 -0.017429 0.079895 0
9.6621 -0.055567 0.29645 0
8.0071 -0.072666 0.37963 0
7.6696 -0.094664 0.49464 0
7.7788 -0.12127 0.63605 0
11.068 -0.20707 1.1052 0
11.126 -0.24458 1.3042 0
5.1481 -0.13213 0.68182 0
5.2238 -0.15127 0.78357 0
5.2678 -0.17002 0.88305 0
5.2903 -0.18841 0.98056 0
5.3109 -0.207 1.0791 0
2.1713 -0.094142 0.46731 0
2.0847 -0.097639 0.48545 0
2.0078 -0.10107 0.5033 0
2.0366 -0.10954 0.54829 0
2.0454 -0.11717 0.58872 0
2.0628 -0.12545 0.63264 0
2.0793 -0.13387 0.67735 0
2.0948 -0.14244 0.72281 0
2.1093 -0.15115 0.76901 0
2.1228 -0.16 0.81594 0
2.1353 -0.16898 0.86356 0
2.1558 -0.17883 0.91585 0
2.5652 -0.22214 1.1471 0
5.6925 -0.51148 2.6936 0
2.6114 -0.24693 1.2786 0
2.5349 -0.25017 1.2954 0
2.5812 -0.26545 1.3766 0
2.5994 -0.27835 1.445 0
2.6158 -0.29145 1.5144 0
2.6391 -0.30572 1.5901 0
2.6521 -0.31922 1.6617 0
2.6634 -0.3329 1.7342 0
2.681 -0.3478 1.8132 0
2.7048 -0.364 1.8991 0
2.7342 -0.38157 1.9923 0
2.7533 -0.3983 2.081 0
2.7779 -0.41643 2.1771 0
2.8151 -0.43721 2.2874 0
2.8569 -0.45956 2.4059 0
2.8952 -0.48231 2.5266 0
2.9155 -0.50294 2.636 0
2.9183 -0.52128 2.7331 0
3.0532 -0.56456 2.963 0
3.0554 -0.58499 3.0712 0
3.0957 -0.6137 3.2235 0
3.1449 -0.64559 3.3926 0
3.189 -0.67799 3.5644 0
3.2537 -0.71651 3.7688 0
3.4129 -0.77861 4.0984 0
3.2714 -0.77358 4.0711 0
3.2767 -0.80326 4.2283 0
3.3068 -0.84068 4.4267 0
3.1181 -0.82255 4.3298 0
3.0235 -0.82796 4.3581 0
2.9235 -0.83147 4.3762 0
2.829 -0.83614 4.4005 0
2.7346 -0.84046 4.423 0
2.6402 -0.84443 4.4436 0
2.5508 -0.84965 4.4708 0
2.4613 -0.85456 4.4964 0
2.3716 -0.85914 4.5203 0
1.1424 -0.43285 2.2568 0
2.1792 -0.86232 4.5363 0
2.0939 -0.8676 4.5639 0
2.0043 -0.87088 4.5809 0
1.9223 -0.87728 4.6144 0
1.8325 -0.87996 4.6282 0
1.6878 -0.8545 4.4926 0
1.5943 -0.85287 4.4836 0
1.4582 -0.82625 4.342 0
1.3805 -0.83089 4.3662 0
1.38 -0.88511 4.6534 0
1.302 -0.89307 4.6952 0
1.2181 -0.89719 4.7167 0
1.1338 -0.90104 4.7367 0
1.0491 -0.90462 4.7553 0
0.96607 -0.90975 4.7821 0
0.88064 -0.91278 4.7978 0
0.79652 -0.91737 4.8217 0
0.71182 -0.92169 4.8442 0
0.62656 -0.92574 4.8653 0
0.54182 -0.93137 4.8947 0
0.45534 -0.93487 4.9129 0
0.37052 -0.94365 4.959 0
0.28312 -0.94846 4.9841 0
0.19457 -0.95114 4.9979 0
0.1058 -0.95538 5.0199 0
0.016309 -0.95934 5.0405 0
-0.07467 -0.97228 5.1086 0
-0.16674 -0.9775 5.1359 0
-0.2593 -0.98057 5.1517 0
-0.35316 -0.98519 5.1758 0
-0.4488 -0.99134 5.208 0
-0.54467 -0.99533 5.2286 0
-0.6378 -0.99347 5.2184 0
-0.69638 -0.94534 4.9632 0
-0.76157 -0.91548 4.8047 0
-0.85575 -0.92206 4.8392 0
-0.95516 -0.93196 4.8912 0
-1.0505 -0.93604 4.9123 0
-1.1446 -0.93798 4.9222 0
-0.70372 -0.53757 2.8032 0
-0.77175 -0.54779 2.8571 0
-0.83644 -0.55416 2.8905 0
-0.89963 -0.55849 2.9132 0
-0.93622 -0.54667 2.8504 0
-1.0033 -0.55237 2.8803 0
-1.0682 -0.55604 2.8995 0
-1.1449 -0.56467 2.9448 0
-2.2977 -1.0696 5.614 0
-2.4247 -1.074 5.637 0
-2.5369 -1.0711 5.6213 0
-2.5146 -1.0139 5.3184 0
-2.6135 -1.0074 5.2831 0
-2.7525 -1.0154 5.325 0
-2.3744 -0.8404 4.3998 0
-2.4187 -0.82122 4.2981 0
-2.4502 -0.7988 4.1791 0
-2.473 -0.77482 4.052 0
-2.6137 -0.78726 4.1173 0
-2.752 -0.79746 4.1707 0
-2.8929 -0.807 4.2206 0
-4.4153 -1.1837 6.2089 0
-4.6191 -1.1934 6.2595 0
-4.856 -1.2096 6.3442 0
-2.6648 -0.6429 3.3524 0
-2.6803 -0.62406 3.2525 0
-2.6995 -0.60674 3.1607 0
-2.7294 -0.5923 3.0841 0
-2.7441 -0.57508 2.9928 0
-2.7768 -0.56203 2.9236 0
-2.7316 -0.53418 2.7763 0
-2.7737 -0.52396 2.7219 0
-2.8292 -0.51621 2.6806 0
-2.8329 -0.49935 2.5913 0
-2.8566 -0.48636 2.5224 0
-2.8712 -0.47215 2.447 0
-2.884 -0.45799 2.372 0
-2.8795 -0.44154 2.2849 0
-2.8964 -0.4287 2.2168 0
-2.9197 -0.41702 2.1548 0
-2.9337 -0.40421 2.0869 0
-2.9461 -0.39144 2.0192 0
-2.9653 -0.37975 1.9572 0
-2.9833 -0.36806 1.8952 0
-2.9999 -0.35636 1.8332 0
-3.0152 -0.34467 1.7712 0
-3.0293 -0.33298 1.7092 0
-3.0421 -0.32131 1.6473 0
-3.0536 -0.30965 1.5855 0
-3.0727 -0.29886 1.5283 0
-3.0818 -0.28722 1.4666 0
-3.1078 -0.2772 1.4134 0
-3.1328 -0.26709 1.3597 0
-3.1476 -0.25617 1.3018 0
-3.1613 -0.24523 1.2438 0
-3.174 -0.23428 1.1857 0
-3.1855 -0.22331 1.1276 0
-3.196 -0.21235 1.0695 0
-3.2149 -0.20196 1.0143 0
-3.2327 -0.19151 0.95893 0
-3.24 -0.18048 0.90049 0
-3.2463 -0.16947 0.84209 0
-3.2708 -0.15938 0.78856 0
-3.2749 -0.14832 0.72999 0
-1.7526 -0.075381 0.35041 0
-1.7099 -0.067851 0.31072 0
-1.7155 -0.062286 0.28122 0
-1.8588 -0.060924 0.27336 0
-0.89354 -0.028469 0.10577 0
-0.86587 -0.024838 0.086656 0
-0.86764 -0.022009 0.071664 0
-0.86914 -0.019175 0.056644 0
-0.88034 -0.016477 0.042302 0
-0.89131 -0.01371 0.027599 0
-0.89202 -0.0108 0.01218 0
-0.90245 -0.0079309 -0.003062 0
-0.90262 -0.0049849 -0.018668 0
6.3369 -0.0070335 0.023045 0
7.025 -0.030126 0.14814 0
9.5887 -0.070786 0.37419 0
7.8633 -0.084283 0.43822 0
7.6246 -0.10665 0.55554 0
11.038 -0.1887 1.0041 0
11.098 -0.22603 1.2019 0
5.1539 -0.12394 0.63644 0
5.2206 -0.14272 0.73608 0
5.2459 -0.16079 0.83179 0
5.2693 -0.17907 0.92859 0
5.3007 -0.19791 1.0284 0
5.3106 -0.21623 1.1253 0
2.1181 -0.095645 0.47379 0
2.0605 -0.10021 0.4977 0
2.0221 -0.1054 0.52501 0
2.0409 -0.11348 0.5678 0
2.0588 -0.12171 0.6114 0
2.0757 -0.13008 0.65579 0
2.0823 -0.138 0.69769 0
2.0973 -0.14663 0.74344 0
2.1207 -0.15608 0.7935 0
2.1337 -0.16502 0.84086 0
2.1456 -0.17409 0.8889 0
2.202 -0.18709 0.9579 0
5.6804 -0.49969 2.6264 0
5.7132 -0.52541 2.7626 0
2.5642 -0.24805 1.2819 0
2.5407 -0.25632 1.3256 0
2.5861 -0.27175 1.4074 0
2.6035 -0.28476 1.4763 0
2.6277 -0.29892 1.5513 0
2.6416 -0.31233 1.6223 0
2.6622 -0.32694 1.6997 0
2.6807 -0.34178 1.7783 0
2.6973 -0.35684 1.858 0
2.7118 -0.3721 1.9388 0
2.7402 -0.38982 2.0326 0
2.766 -0.40782 2.128 0
2.797 -0.42729 2.2311 0
2.8252 -0.44708 2.3359 0
2.8729 -0.47085 2.4619 0
2.9023 -0.49256 2.5769 0
2.9138 -0.51207 2.6801 0
6.6742 -1.211 6.3938 0
3.0409 -0.57282 3.002 0
3.0764 -0.60002 3.1461 0
3.1213 -0.63035 3.3067 0
3.1746 -0.66392 3.4845 0
3.229 -0.69943 3.6726 0
3.4116 -0.76543 4.0225 0
3.3206 -0.77207 4.0573 0
3.2904 -0.79301 4.1679 0
3.2334 -0.80805 4.2473 0
3.2328 -0.83802 4.4058 0
3.0742 -0.82707 4.3472 0
2.974 -0.83078 4.3664 0
2.8795 -0.83565 4.3917 0
2.785 -0.84016 4.4152 0
2.6905 -0.84432 4.4368 0
2.5961 -0.84812 4.4565 0
2.5066 -0.85319 4.4829 0
2.417 -0.85794 4.5077 0
1.1806 -0.43813 2.2816 0
2.2202 -0.85979 4.5167 0
2.1392 -0.8669 4.5539 0
2.0537 -0.87204 4.5807 0
1.964 -0.87519 4.597 0
1.878 -0.87974 4.6207 0
1.7917 -0.884 4.6429 0
1.6247 -0.84604 4.4413 0
1.5516 -0.85473 4.487 0
1.4199 -0.82961 4.3536 0
1.362 -0.84657 4.443 0
1.3445 -0.89199 4.6833 0
1.2607 -0.89626 4.7055 0
1.1766 -0.90025 4.7262 0
1.0921 -0.90397 4.7455 0
1.0093 -0.90924 4.773 0
0.92403 -0.91241 4.7895 0
0.84013 -0.91715 4.8142 0
0.75564 -0.92161 4.8374 0
0.67057 -0.9258 4.8592 0
0.58496 -0.92973 4.8796 0
0.4998 -0.93522 4.9083 0
0.41459 -0.9423 4.9454 0
0.3276 -0.94725 4.9712 0
0.2398 -0.95193 4.9956 0
0.15124 -0.95632 5.0184 0
0.06194 -0.96042 5.0398 0
-0.028146 -0.9661 5.0694 0
-0.12 -0.97705 5.127 0
-0.21223 -0.98027 5.1436 0
-0.30569 -0.98505 5.1685 0
-0.4001 -0.98952 5.1917 0
-0.49637 -0.99552 5.223 0
-0.59387 -1.0012 5.2527 0
-0.66557 -0.96784 5.0759 0
-0.72097 -0.92145 4.8303 0
-0.80701 -0.91902 4.817 0
-0.90183 -0.92545 4.8506 0
-1.0001 -0.93337 4.8921 0
-1.0979 -0.93911 4.9221 0
-0.69921 -0.55561 2.895 0
-0.7484 -0.55148 2.873 0
-0.80764 -0.55437 2.888 0
-0.87328 -0.5606 2.9207 0
-0.91044 -0.54883 2.8583 0
-0.97405 -0.55287 2.8794 0
-1.0354 -0.55491 2.8899 0
-1.1043 -0.56021 2.9176 0
-2.2249 -1.0641 5.5787 0
-2.3621 -1.074 5.6304 0
-2.482 -1.0748 5.634 0
-2.5036 -1.0344 5.4204 0
-2.5484 -1.006 5.27 0
-2.6908 -1.016 5.3221 0
-2.8175 -1.0188 5.3361 0
-2.4035 -0.83429 4.362 0
-2.4368 -0.81181 4.2429 0
-2.4666 -0.78937 4.1241 0
-2.4982 -0.76857 4.0139 0
-2.6927 -0.79656 4.1612 0
-2.8216 -0.8033 4.1962 0
-2.9356 -0.80482 4.2038 0
-4.5217 -1.1916 6.2433 0
-4.7331 -1.2023 6.2991 0
-4.9721 -1.218 6.3807 0
-2.6756 -0.63498 3.3064 0
-2.6962 -0.61759 3.2144 0
-2.7144 -0.60026 3.1226 0
-2.7368 -0.58439 3.0386 0
-2.7502 -0.56719 2.9475 0
-2.7613 -0.55008 2.8569 0
-2.812 -0.54106 2.809 0
-2.7907 -0.51878 2.6913 0
-2.8384 -0.50967 2.6429 0
-2.8485 -0.49409 2.5604 0
-2.864 -0.47984 2.4849 0
-2.8701 -0.46442 2.4033 0
-2.8973 -0.45267 2.3411 0
-2.8919 -0.43623 2.2541 0
-2.916 -0.42452 2.1921 0
-2.9308 -0.41167 2.124 0
-2.9441 -0.39885 2.0562 0
-2.9558 -0.38607 1.9885 0
-2.9744 -0.37436 1.9265 0
-2.9917 -0.36265 1.8645 0
-3.0077 -0.35094 1.8025 0
-3.0224 -0.33924 1.7405 0
-3.0358 -0.32754 1.6785 0
-3.048 -0.31586 1.6167 0
-3.0677 -0.30507 1.5595 0
-3.0775 -0.2934 1.4977 0
-3.0949 -0.28256 1.4404 0
-3.1204 -0.27249 1.3869 0
-3.1358 -0.26158 1.3291 0
-3.1593 -0.25137 1.275 0
-3.1632 -0.2397 1.2133 0
-3.1847 -0.22941 1.1588 0
-3.1957 -0.21841 1.1005 0
-3.2057 -0.20741 1.0423 0
-3.224 -0.19698 0.98705 0
-3.2415 -0.18649 0.93149 0
-3.2482 -0.17544 0.87299 0
-3.2636 -0.16487 0.81703 0
-3.278 -0.15426 0.76081 0
-3.2914 -0.1436 0.70436 0
-1.7365 -0.071853 0.33147 0
-1.7032 -0.064796 0.29428 0
-1.6691 -0.057976 0.25835 0
-1.6243 -0.051109 0.22221 0
-0.86519 -0.026277 0.094088 0
-0.86709 -0.023448 0.079112 0
-0.86872 -0.020612 0.064107 0
-0.87009 -0.017772 0.049075 0
-0.89115 -0.015177 0.035258 0
-0.89201 -0.012265 0.019847 0
-0.90258 -0.0094095 0.0046978 0
-0.90289 -0.0064603 -0.010905 0
-0.90292 -0.0035104 -0.026511 0
6.3836 -0.017499 0.064859 0
9.7695 -0.056717 0.2786 0
8.0047 -0.073439 0.3616 0
7.6674 -0.095706 0.47722 0
7.767 -0.12248 0.61753 0
11.067 -0.20945 1.0808 0
11.126 -0.24742 1.2796 0
5.1463 -0.13364 0.66926 0
5.2321 -0.1533 0.77232 0
5.2566 -0.17167 0.86849 0
5.2891 -0.1906 0.96759 0
5.3001 -0.20904 1.0641 0
2.1594 -0.094799 0.45851 0
2.0923 -0.099193 0.48132 0
2.0057 -0.10223 0.49697 0
2.0346 -0.1108 0.54189 0
2.0434 -0.11852 0.58229 0
2.0609 -0.12689 0.62616 0
2.0775 -0.13542 0.6708 0
2.0931 -0.1441 0.71622 0
2.1077 -0.15291 0.76237 0
2.1213 -0.16187 0.80925 0
2.1339 -0.17096 0.85683 0
2.1545 -0.18093 0.90905 0
2.5734 -0.22554 1.1435 0
5.6947 -0.51759 2.6791 0
2.6197 -0.25069 1.2751 0
2.5432 -0.254 1.2923 0
2.572 -0.2677 1.364 0
2.5991 -0.28165 1.4371 0
2.6157 -0.29491 1.5065 0
2.6392 -0.30935 1.5821 0
2.6439 -0.322 1.6483 0
2.672 -0.3379 1.7315 0
2.6815 -0.35195 1.805 0
2.7054 -0.36834 1.8908 0
2.7351 -0.38612 1.9839 0
2.7543 -0.40305 2.0725 0
2.7868 -0.42258 2.1747 0
2.8165 -0.44243 2.2787 0
2.8585 -0.46505 2.3971 0
2.8897 -0.48684 2.5111 0
2.9176 -0.50896 2.6269 0
2.9206 -0.52752 2.724 0
3.063 -0.57265 2.9605 0
3.0583 -0.59201 3.0617 0
3.0989 -0.62107 3.2138 0
3.1485 -0.65334 3.3828 0
3.1995 -0.68754 3.5618 0
3.2515 -0.72369 3.7511 0
3.4305 -0.79088 4.103 0
3.2763 -0.78288 4.0607 0
3.2819 -0.81292 4.2179 0
3.3124 -0.85079 4.4161 0
3.1292 -0.83398 4.3277 0
3.029 -0.83793 4.3481 0
2.9344 -0.84304 4.3746 0
2.8346 -0.84621 4.3909 0
2.7402 -0.85058 4.4135 0
2.6509 -0.85621 4.4428 0
2.5565 -0.85988 4.4617 0
2.467 -0.86485 4.4875 0
2.3819 -0.87116 4.5203 0
1.1526 -0.44139 2.269 0
2.185 -0.87271 4.5279 0
2.0997 -0.87805 4.5556 0
2.0141 -0.8831 4.5818 0
1.9282 -0.88785 4.6064 0
1.8421 -0.89231 4.6295 0
1.7004 -0.86831 4.5036 0
1.6099 -0.86846 4.5042 0
1.4667 -0.83798 4.3444 0
1.3889 -0.84269 4.3688 0
1.3889 -0.89758 4.656 0
1.3081 -0.90383 4.6884 0
1.2242 -0.90801 4.7101 0
1.14 -0.91191 4.7303 0
1.0575 -0.91736 4.7586 0
0.97237 -0.92071 4.7759 0
0.88874 -0.92563 4.8014 0
0.8045 -0.93029 4.8256 0
0.71967 -0.93466 4.8482 0
0.63428 -0.93877 4.8695 0
0.54835 -0.9426 4.8893 0
0.46463 -0.95176 4.937 0
0.37717 -0.95504 4.9539 0
0.28982 -0.9599 4.9792 0
0.20168 -0.96449 5.0029 0
0.11278 -0.96878 5.0252 0
0.023121 -0.97091 5.0361 0
-0.067863 -0.98589 5.1142 0
-0.15974 -0.9893 5.1318 0
-0.25324 -0.99616 5.1675 0
-0.34674 -0.99895 5.1818 0
-0.44166 -1.0033 5.2044 0
-0.53849 -1.0092 5.235 0
-0.63064 -1.0055 5.2152 0
-0.69108 -0.95861 4.9699 0
-0.75522 -0.92652 4.8019 0
-0.85103 -0.93504 4.8462 0
-0.94864 -0.94321 4.8887 0
-1.0439 -0.94734 4.9101 0
-1.1403 -0.95113 4.9297 0
-0.72037 -0.55863 2.8775 0
-0.77944 -0.56164 2.8931 0
-0.82024 -0.55178 2.8415 0
-0.88255 -0.55622 2.8645 0
-0.93982 -0.55683 2.8676 0
-1.0039 -0.56079 2.8881 0
-1.0656 -0.56273 2.8981 0
-2.1218 -1.0564 5.4779 0
-2.2935 -1.0842 5.623 0
-2.4167 -1.087 5.6371 0
-2.529 -1.0841 5.6217 0
-2.5073 -1.0262 5.3188 0
-2.6018 -1.0178 5.2749 0
-2.7451 -1.0277 5.3259 0
-2.3782 -0.85387 4.4177 0
-2.4134 -0.83114 4.2988 0
-2.4451 -0.80844 4.1799 0
-2.4682 -0.78417 4.0529 0
-2.6139 -0.79836 4.1268 0
-2.7523 -0.80867 4.1804 0
-2.8877 -0.81674 4.2223 0
-4.4119 -1.1995 6.2208 0
-4.6099 -1.2078 6.2636 0
-4.8347 -1.2212 6.333 0
-2.6613 -0.65066 3.354 0
-2.677 -0.63159 3.2542 0
-2.7028 -0.6155 3.17 0
-2.7265 -0.59944 3.0859 0
-2.7413 -0.58201 2.9947 0
-2.7673 -0.56743 2.9184 0
-2.7292 -0.54062 2.7782 0
-2.7644 -0.52893 2.717 0
-2.827 -0.52243 2.6828 0
-2.8455 -0.50794 2.607 0
-2.8548 -0.49222 2.5247 0
-2.8695 -0.47783 2.4494 0
-2.8824 -0.4635 2.3744 0
-2.8781 -0.44685 2.2873 0
-2.8951 -0.43386 2.2193 0
-2.9186 -0.42203 2.1574 0
-2.9327 -0.40907 2.0896 0
-2.9453 -0.39614 2.0219 0
-2.9646 -0.38432 1.96 0
-2.991 -0.37351 1.9034 0
-2.9994 -0.36064 1.8361 0
-3.0148 -0.34881 1.7741 0
-3.029 -0.33698 1.7122 0
-3.0419 -0.32516 1.6504 0
-3.0624 -0.31425 1.5933 0
-3.0728 -0.30245 1.5315 0
-3.082 -0.29066 1.4698 0
-3.1081 -0.28052 1.4167 0
-3.1241 -0.26952 1.3591 0
-3.1481 -0.25924 1.3052 0
-3.162 -0.24816 1.2473 0
-3.1654 -0.23639 1.1857 0
-3.1864 -0.22598 1.1312 0
-3.2064 -0.2155 1.0763 0
-3.216 -0.20437 1.018 0
-3.234 -0.19379 0.96268 0
-3.2414 -0.18263 0.90428 0
-3.2477 -0.17148 0.84592 0
-3.2723 -0.16127 0.79245 0
-3.2863 -0.15052 0.73616 0
-1.7453 -0.075843 0.34945 0
-1.7124 -0.068623 0.31177 0
-1.7279 -0.063329 0.28403 0
-1.9305 -0.06375 0.28572 0
-0.90632 -0.029032 0.1067 0
-0.86879 -0.025084 0.086147 0
-0.87059 -0.02222 0.071165 0
-0.87212 -0.019352 0.056154 0
-0.88335 -0.016621 0.04184 0
-0.89434 -0.013821 0.027165 0
-0.89508 -0.010875 0.011754 0
-0.90555 -0.0079716 -0.0034605 0
-0.90575 -0.0049898 -0.019059 0
6.3323 -0.0070135 0.0011818 0
7.0308 -0.030556 0.12439 0
9.5851 -0.071893 0.34255 0
7.8599 -0.085651 0.41161 0
7.6116 -0.10829 0.52882 0
11.046 -0.1921 0.96873 0
11.097 -0.22994 1.1653 0
5.1412 -0.12582 0.61641 0
5.2281 -0.14544 0.71843 0
5.2536 -0.16387 0.81417 0
5.2674 -0.18218 0.90926 0
5.2893 -0.201 1.007 0
5.3092 -0.22001 1.1058 0
2.1246 -0.0977 0.46626 0
2.0671 -0.10238 0.49049 0
2.019 -0.10721 0.51548 0
2.0379 -0.11543 0.55819 0
2.0464 -0.12324 0.5988 0
2.073 -0.13233 0.64602 0
2.0797 -0.14039 0.68787 0
2.0949 -0.14918 0.73354 0
2.1091 -0.15812 0.77995 0
2.1315 -0.1679 0.83079 0
2.1344 -0.17639 0.87489 0
2.2002 -0.19037 0.94756 0
5.6745 -0.5078 2.6006 0
5.7257 -0.53563 2.7451 0
2.5722 -0.2533 1.2748 0
2.5399 -0.26086 1.314 0
2.5856 -0.27657 1.3957 0
2.6032 -0.28981 1.4644 0
2.6276 -0.30422 1.5393 0
2.6418 -0.31788 1.6102 0
2.6625 -0.33276 1.6875 0
2.6813 -0.34786 1.766 0
2.6981 -0.36319 1.8456 0
2.721 -0.37985 1.9321 0
2.7415 -0.39677 2.02 0
2.7676 -0.4151 2.1152 0
2.7989 -0.43492 2.2182 0
2.8274 -0.45507 2.3229 0
2.8755 -0.47927 2.4486 0
2.9052 -0.50138 2.5634 0
2.9171 -0.52124 2.6666 0
6.6955 -1.2342 6.3736 0
3.0451 -0.58309 2.9879 0
3.081 -0.61079 3.1317 0
3.1196 -0.64028 3.2849 0
3.1802 -0.67584 3.4697 0
3.2287 -0.71056 3.65 0
3.4124 -0.77774 3.9991 0
3.3341 -0.78742 4.0492 0
3.298 -0.80727 4.1523 0
3.2412 -0.82259 4.2317 0
3.2528 -0.85616 4.4061 0
3.0823 -0.84195 4.3321 0
2.9878 -0.8473 4.3597 0
2.8878 -0.85069 4.3771 0
2.7933 -0.85528 4.4009 0
2.6989 -0.85951 4.4227 0
2.6046 -0.86338 4.4427 0
2.5152 -0.86855 4.4694 0
2.4256 -0.87338 4.4944 0
1.1692 -0.44091 2.247 0
2.2288 -0.87527 4.5039 0
2.148 -0.88251 4.5414 0
2.0625 -0.88775 4.5685 0
1.9728 -0.89095 4.585 0
1.8906 -0.89734 4.618 0
1.8008 -0.89992 4.6313 0
1.6366 -0.86305 4.4396 0
1.5731 -0.87728 4.5134 0
1.4281 -0.84455 4.3433 0
1.3762 -0.86544 4.4517 0
1.3536 -0.90807 4.673 0
1.2699 -0.91241 4.6954 0
1.1882 -0.91831 4.7259 0
1.1036 -0.92211 4.7455 0
1.0187 -0.92563 4.7637 0
0.93535 -0.93072 4.79 0
0.84965 -0.93368 4.8053 0
0.76523 -0.93822 4.8288 0
0.68023 -0.94249 4.8508 0
0.59585 -0.94837 4.8812 0
0.5096 -0.95209 4.9004 0
0.42451 -0.95929 4.9377 0
0.33758 -0.96433 4.9637 0
0.24986 -0.96909 4.9883 0
0.16137 -0.97357 5.0114 0
0.072131 -0.97775 5.033 0
-0.017867 -0.98353 5.0629 0
-0.10955 -0.99468 5.1207 0
-0.20212 -0.99985 5.1474 0
-0.29568 -1.0047 5.1725 0
-0.3902 -1.0093 5.196 0
-0.48654 -1.0154 5.2276 0
-0.58305 -1.0193 5.2477 0
-0.65401 -0.98343 5.0615 0
-0.71282 -0.93995 4.8357 0
-0.79908 -0.93747 4.8227 0
-0.89751 -0.94773 4.8758 0
-0.99224 -0.95206 4.8982 0
-1.088 -0.95606 4.9188 0
-0.67931 -0.55271 2.825 0
-0.72984 -0.55039 2.8129 0
-0.79064 -0.55521 2.8378 0
-0.84976 -0.55797 2.8521 0
-0.90962 -0.56051 2.8652 0
-0.97333 -0.56461 2.8864 0
-1.0414 -0.57025 2.9156 0
-1.9715 -1.0177 5.2376 0
-2.2131 -1.0834 5.5783 0
-2.3539 -1.0952 5.6394 0
-2.4739 -1.096 5.6433 0
-2.484 -1.0497 5.403 0
-2.5375 -1.0242 5.2707 0
-2.6754 -1.0327 5.3145 0
-2.811 -1.0389 5.3464 0
-2.3953 -0.84935 4.3629 0
-2.4289 -0.82646 4.244 0
-2.4591 -0.80361 4.1254 0
-2.4962 -0.78406 4.0238 0
-2.6851 -0.81094 4.1631 0
-2.8139 -0.8178 4.1985 0
-2.9278 -0.81935 4.2064 0
-4.5137 -1.2147 6.2572 0
-4.7133 -1.2226 6.2977 0
-4.958 -1.24 6.3879 0
-2.6705 -0.64642 3.3089 0
-2.6914 -0.62872 3.2169 0
-2.7098 -0.61108 3.1253 0
-2.7325 -0.59493 3.0414 0
-2.7529 -0.57881 2.9577 0
-2.7507 -0.55861 2.8528 0
-2.8084 -0.55081 2.8122 0
-2.7874 -0.52812 2.6944 0
-2.8425 -0.52016 2.653 0
-2.8456 -0.50298 2.5638 0
-2.8613 -0.48847 2.4884 0
-2.8752 -0.47401 2.4133 0
-2.872 -0.45718 2.326 0
-2.8899 -0.44408 2.2579 0
-2.9142 -0.43215 2.1959 0
-2.9292 -0.41907 2.128 0
-2.9426 -0.40602 2.0602 0
-2.9546 -0.393 1.9926 0
-2.9733 -0.38109 1.9307 0
-2.9908 -0.36917 1.8688 0
-3.007 -0.35724 1.8069 0
-3.0219 -0.34533 1.745 0
-3.0442 -0.33436 1.688 0
-3.0566 -0.32244 1.6261 0
-3.0678 -0.31053 1.5642 0
-3.0777 -0.29865 1.5025 0
-3.0953 -0.28762 1.4452 0
-3.1119 -0.27657 1.3878 0
-3.1365 -0.26626 1.3342 0
-3.1509 -0.25513 1.2764 0
-3.1643 -0.24398 1.2185 0
-3.1765 -0.23283 1.1606 0
-3.1971 -0.22231 1.1059 0
-3.2072 -0.21111 1.0478 0
-3.2258 -0.20049 0.99262 0
-3.2433 -0.18981 0.93714 0
-3.2599 -0.17907 0.88137 0
-3.2562 -0.16731 0.82032 0
-3.2804 -0.15699 0.76668 0
-3.2939 -0.14614 0.7103 0
-1.7304 -0.072691 0.33109 0
-1.7069 -0.065895 0.29584 0
-3.3384 -0.11365 0.54157 0
-1.6678 -0.053123 0.22958 0
-0.86953 -0.02667 0.093316 0
-0.87148 -0.023789 0.078357 0
-0.87316 -0.020902 0.063366 0
-0.88454 -0.018171 0.049165 0
-0.88569 -0.015242 0.033955 0
-0.88658 -0.012309 0.018727 0
-0.8972 -0.0094354 0.0037909 0
-0.91754 -0.0065222 -0.011364 0
-0.91762 -0.0034857 -0.02713 0
6.3696 -0.017628 0.044875 0
10.866 -0.063505 0.28058 0
8.0015 -0.074481 0.33725 0
7.6645 -0.09711 0.4537 0
7.7645 -0.12432 0.59367 0
11.066 -0.21267 1.048 0
11.125 -0.25125 1.2465 0
5.1439 -0.13568 0.6523 0
5.23 -0.15565 0.75507 0
5.2646 -0.17464 0.85277 0
5.2875 -0.19356 0.95007 0
5.2987 -0.21229 1.0465 0
2.1564 -0.096232 0.44958 0
2.0894 -0.1007 0.47256 0
2.0028 -0.10378 0.48843 0
2.0319 -0.11249 0.53324 0
2.0408 -0.12033 0.57359 0
2.0584 -0.12885 0.61739 0
2.0751 -0.13751 0.66197 0
2.0908 -0.14633 0.70731 0
2.1056 -0.15529 0.7534 0
2.1193 -0.16438 0.80021 0
2.132 -0.17362 0.84773 0
2.1436 -0.18299 0.89593 0
2.5632 -0.22829 1.129 0
5.7066 -0.52665 2.6637 0
2.6189 -0.25464 1.2645 0
2.5336 -0.25712 1.2773 0
2.5715 -0.27192 1.3534 0
2.5987 -0.2861 1.4264 0
2.6155 -0.29958 1.4957 0
2.6307 -0.31325 1.566 0
2.6441 -0.32711 1.6373 0
2.6724 -0.34326 1.7204 0
2.6821 -0.35753 1.7939 0
2.7062 -0.37419 1.8796 0
2.7281 -0.39112 1.9667 0
2.7556 -0.40947 2.061 0
2.7806 -0.42811 2.157 0
2.8184 -0.44948 2.2669 0
2.8607 -0.47247 2.3852 0
2.8921 -0.4946 2.499 0
2.9204 -0.51708 2.6147 0
2.9164 -0.53463 2.705 0
3.0667 -0.5818 2.9477 0
3.0623 -0.60147 3.0489 0
3.1033 -0.631 3.2008 0
3.1532 -0.6638 3.3695 0
3.2047 -0.69855 3.5483 0
3.2508 -0.73383 3.7298 0
3.4372 -0.80356 4.0885 0
3.2891 -0.79692 4.0544 0
3.2949 -0.82747 4.2115 0
3.314 -0.8629 4.3938 0
3.1365 -0.84735 4.3138 0
3.0363 -0.85136 4.3345 0
2.9419 -0.85656 4.3613 0
2.8474 -0.86139 4.3861 0
2.7529 -0.86586 4.4091 0
2.6585 -0.86995 4.4301 0
2.5642 -0.87368 4.4493 0
2.4747 -0.87873 4.4753 0
2.3851 -0.88344 4.4996 0
2.2777 -0.88099 4.487 0
2.1928 -0.88672 4.5164 0
2.1118 -0.89388 4.5533 0
2.0221 -0.89728 4.5708 0
1.9363 -0.90211 4.5956 0
1.8502 -0.90664 4.619 0
1.7117 -0.88404 4.5027 0
1.6375 -0.89321 4.5499 0
1.4804 -0.85506 4.3536 0
1.3993 -0.85804 4.3689 0
1.4026 -0.91566 4.6654 0
1.319 -0.92019 4.6887 0
1.2326 -0.92259 4.7011 0
1.1506 -0.92841 4.731 0
1.0659 -0.9321 4.75 0
0.98085 -0.93551 4.7675 0
0.89729 -0.94051 4.7933 0
0.81312 -0.94523 4.8176 0
0.72835 -0.94969 4.8405 0
0.64301 -0.95386 4.862 0
0.55824 -0.95965 4.8918 0
0.47354 -0.96706 4.9299 0
0.38613 -0.97039 4.947 0
0.29884 -0.97533 4.9725 0
0.21036 -0.97809 4.9867 0
0.12169 -0.98245 5.0091 0
0.03236 -0.98843 5.0399 0
-0.058479 -1.0017 5.1084 0
-0.15031 -1.0052 5.1262 0
-0.24372 -1.0122 5.1621 0
-0.33717 -1.015 5.1767 0
-0.43284 -1.0214 5.2093 0
-0.52879 -1.0254 5.2304 0
-0.62099 -1.0216 5.2108 0
-0.68074 -0.97214 4.9561 0
-0.74667 -0.94143 4.7981 0
-0.84235 -0.95008 4.8426 0
-0.93985 -0.95838 4.8854 0
-1.0331 -0.96071 4.8974 0
-1.1314 -0.96643 4.9268 0
-0.72398 -0.57314 2.9034 0
-0.75825 -0.55772 2.8241 0
-0.81957 -0.56246 2.8484 0
-0.87913 -0.56513 2.8622 0
-0.94548 -0.57121 2.8935 0
-1.7548 -0.99644 5.0812 0
-1.8621 -0.99943 5.0966 0
-2.115 -1.0752 5.4865 0
-2.2827 -1.1017 5.6228 0
-2.4059 -1.1045 5.6372 0
-2.5142 -1.0998 5.6131 0
-2.5015 -1.0444 5.3283 0
-2.5963 -1.036 5.2846 0
-2.7396 -1.0459 5.3358 0
-2.3706 -0.86761 4.4185 0
-2.4061 -0.84451 4.2996 0
-2.4381 -0.82145 4.181 0
-2.4616 -0.79679 4.0541 0
-2.6124 -0.81283 4.1367 0
-2.7453 -0.82168 4.1822 0
-2.8807 -0.82989 4.2244 0
-4.3996 -1.2189 6.2258 0
-4.6033 -1.2288 6.2771 0
-4.8161 -1.2394 6.3312 0
-5.0322 -1.2488 6.3799 0
-2.685 -0.64471 3.2717 0
-2.705 -0.62686 3.1799 0
-2.7159 -0.60762 3.0809 0
-2.7375 -0.59136 2.9972 0
-2.7637 -0.57654 2.921 0
-2.7329 -0.55068 2.788 0
-2.7614 -0.53742 2.7198 0
-2.8312 -0.53215 2.6926 0
-2.85 -0.5174 2.6167 0
-2.8522 -0.50011 2.5278 0
-2.8747 -0.48676 2.4591 0
-2.8803 -0.47093 2.3777 0
-2.8762 -0.45401 2.2906 0
-2.8934 -0.44081 2.2227 0
-2.917 -0.4288 2.1609 0
-2.9313 -0.41562 2.0931 0
-2.9441 -0.40249 2.0256 0
-2.9636 -0.39047 1.9637 0
-2.9818 -0.37844 1.9019 0
-2.9987 -0.36642 1.84 0
-3.0143 -0.35439 1.7781 0
-3.0286 -0.34237 1.7163 0
-3.0504 -0.3313 1.6593 0
-3.0535 -0.31837 1.5928 0
-3.0729 -0.30728 1.5357 0
-3.0823 -0.2953 1.4741 0
-3.0994 -0.28418 1.4169 0
-3.1337 -0.2746 1.3676 0
-3.1488 -0.26337 1.3098 0
-3.1628 -0.25212 1.252 0
-3.1757 -0.24085 1.194 0
-3.1876 -0.22958 1.136 0
-3.2077 -0.21893 1.0812 0
-3.2174 -0.20761 1.023 0
-3.226 -0.1963 0.96479 0
-3.2527 -0.18606 0.91214 0
-3.2689 -0.17521 0.85627 0
-3.2744 -0.16382 0.7977 0
-3.2885 -0.15289 0.74148 0
-1.7583 -0.077408 0.35302 0
-1.7157 -0.069664 0.31317 0
-1.7313 -0.064283 0.2855 0
-1.8253 -0.061301 0.27016 0
-0.89042 -0.028871 0.10325 0
-0.87273 -0.025414 0.085457 0
-0.8845 -0.022715 0.071576 0
-0.88609 -0.019767 0.056408 0
-0.89738 -0.016959 0.041961 0
-0.88845 -0.013857 0.026002 0
-0.89922 -0.010975 0.011178 0
-0.90972 -0.0080252 -0.0039998 0
-0.90996 -0.0049952 -0.019588 0
6.3295 -0.0070007 -0.012112 0
7.0682 -0.030948 0.11057 0
9.5829 -0.072566 0.32331 0
7.8578 -0.086481 0.39542 0
7.6197 -0.10951 0.51373 0
11.035 -0.19389 0.94575 0
11.086 -0.23211 1.142 0
5.1494 -0.12733 0.60621 0
5.2265 -0.14693 0.70682 0
5.2423 -0.16526 0.80092 0
5.2564 -0.18373 0.89578 0
5.2784 -0.20272 0.99326 0
5.2986 -0.22191 1.0918 0
2.1128 -0.098256 0.45807 0
2.0651 -0.10342 0.48461 0
2.0075 -0.1078 0.50711 0
2.0265 -0.11608 0.54961 0
2.0446 -0.12451 0.59291 0
2.0619 -0.1331 0.63701 0
2.0781 -0.14184 0.68189 0
2.0934 -0.15073 0.72752 0
2.1076 -0.15976 0.77388 0
2.1302 -0.16965 0.82466 0
2.1331 -0.17824 0.86874 0
2.1899 -0.19158 0.93725 0
5.6763 -0.51321 2.5874 0
5.7367 -0.54218 2.7361 0
2.5717 -0.25597 1.2677 0
2.5395 -0.26361 1.307 0
2.5853 -0.27949 1.3885 0
2.603 -0.29287 1.4572 0
2.6276 -0.30745 1.532 0
2.6418 -0.32125 1.6029 0
2.6627 -0.33629 1.6801 0
2.6734 -0.35048 1.753 0
2.6986 -0.36705 1.838 0
2.7216 -0.38389 1.9245 0
2.7344 -0.39984 2.0064 0
2.7686 -0.41953 2.1075 0
2.8001 -0.43956 2.2103 0
2.8211 -0.45869 2.3086 0
2.8771 -0.48439 2.4405 0
2.8995 -0.50545 2.5486 0
2.919 -0.52681 2.6583 0
6.6897 -1.2448 6.3434 0
3.0476 -0.58933 2.9793 0
3.0769 -0.61595 3.1159 0
3.1226 -0.64714 3.276 0
3.1836 -0.68308 3.4606 0
3.2389 -0.71962 3.6482 0
3.4039 -0.78315 3.9743 0
3.3386 -0.79587 4.0397 0
3.2965 -0.81443 4.135 0
3.252 -0.83295 4.2301 0
3.2813 -0.87155 4.4283 0
3.0873 -0.85099 4.3228 0
2.9928 -0.8564 4.3506 0
2.8928 -0.85982 4.3682 0
2.7984 -0.86447 4.3921 0
2.704 -0.86875 4.4141 0
2.6147 -0.87432 4.4428 0
2.5204 -0.87788 4.4611 0
2.4308 -0.88277 4.4862 0
1.1658 -0.44392 2.2333 0
2.234 -0.88468 4.4961 0
2.1533 -0.892 4.5337 0
2.0679 -0.89729 4.5609 0
1.9821 -0.90229 4.5866 0
1.8961 -0.90699 4.6108 0
1.8062 -0.9096 4.6242 0
1.6485 -0.87593 4.4514 0
1.588 -0.89214 4.5347 0
1.433 -0.85363 4.337 0
1.3872 -0.8784 4.4642 0
1.3591 -0.91783 4.6667 0
1.2781 -0.92407 4.6987 0
1.1915 -0.92633 4.7104 0
1.1093 -0.93203 4.7397 0
1.0244 -0.93558 4.758 0
0.9411 -0.94073 4.7844 0
0.85715 -0.94561 4.8095 0
0.77259 -0.95021 4.8331 0
0.68746 -0.95453 4.8554 0
0.60177 -0.95857 4.8762 0
0.51555 -0.96233 4.8955 0
0.43137 -0.97152 4.9427 0
0.34365 -0.97471 4.9591 0
0.25597 -0.97953 4.9839 0
0.16719 -0.98214 4.9973 0
0.078162 -0.98636 5.0191 0
